ply
format ascii 1.0
element vertex 1255
property float x
property float y
property float z
property uchar red
property uchar green
property uchar blue
end_header
62.6063 -26.4765 2.51117  255 255 255
62.993 -26.4923 2.13067  255 255 255
2.4639 -22.4726 34.6107  255 255 255
-15.8092 -22.3888 32.9576  255 255 255
16.0936 -23.1782 29.7577  255 255 255
67.4481 -25.5697 16.402  255 255 255
65.6449 -24.8519 24.043  255 255 255
-6.31585 -22.6115 34.5044  255 255 255
-22.3102 -22.8332 30.9984  255 255 255
-13.2055 -22.7319 34.8696  255 255 255
-13.2055 -22.7319 34.8696  255 255 255
21.7696 -23.9786 28.6385  255 255 255
-21.4429 -23.1058 31.481  255 255 255
-21.2161 -23.1884 31.2567  255 255 255
5.69202 -23.3741 33.9773  255 255 255
63.6357 -27.4319 4.04616  255 255 255
-43.1883 -26.1685 0.0123276  255 255 255
66.6654 -26.9512 11.9167  255 255 255
-54.6355 -26.2501 0.861613  255 255 255
-24.2443 -23.4624 31.9088  255 255 255
62.3644 -28.1108 1.98048  255 255 255
21.7694 -24.6111 29.0923  255 255 255
-0.201375 -23.6651 34.8651  255 255 255
66.011 -26.3632 22.8597  255 255 255
66.0505 -26.2026 23.2264  255 255 255
64.4238 -28.1688 5.85849  255 255 255
-18.2593 -23.9189 32.028  255 255 255
-6.21661 -23.7195 35.6108  255 255 255
63.8727 -28.659 3.80425  255 255 255
19.528 -25.0366 29.9926  255 255 255
-21.8529 -24.3101 32.8298  255 255 255
-12.3458 -24.1649 35.1318  255 255 255
-12.3381 -24.164 35.1145  255 255 255
61.4814 -29.5894 -2.41601  255 255 255
67.1565 -27.9903 14.114  255 255 255
63.3413 -29.3444 2.28955  255 255 255
2.69136 -24.531 35.6245  255 255 255
-13.9911 -24.5703 33.7385  255 255 255
67.4125 -28.5265 12.3186  255 255 255
-20.3282 -24.705 33.1923  255 255 255
-2.8683 -24.6863 36.3832  255 255 255
67.4014 -28.8887 12.1378  255 255 255
41.9907 -29.8866 -2.1431  255 255 255
-43.3784 -28.092 2.47138  255 255 255
-44.6778 -28.3997 2.19386  255 255 255
-20.5574 -25.1491 33.5722  255 255 255
63.5802 -30.0569 4.63706  255 255 255
64.3715 -30.2092 3.42784  255 255 255
-21.5638 -25.6155 31.915  255 255 255
-21.2796 -25.6049 32.2706  255 255 255
-9.01096 -25.3641 35.6665  255 255 255
62.8633 -31.13 -0.237069  255 255 255
66.1911 -29.9716 10.3182  255 255 255
69.3858 -29.2667 16.8182  255 255 255
69.7259 -29.3303 16.809  255 255 255
68.4107 -29.3502 16.7243  255 255 255
-5.85766 -25.52 36.6053  255 255 255
68.331 -29.8584 13.264  255 255 255
-18.4267 -25.7066 34.2878  255 255 255
-8.93764 -25.7493 35.5083  255 255 255
67.0413 -30.3812 9.9026  255 255 255
65.3438 -31.1318 5.17157  255 255 255
63.3887 -31.8276 0.219199  255 255 255
-9.73029 -26.0843 35.1339  255 255 255
63.2868 -32.0974 0.484542  255 255 255
4.13163 -26.4146 36.1101  255 255 255
4.2985 -26.575 36.0452  255 255 255
68.4405 -30.7764 14.6386  255 255 255
68.4405 -30.7764 14.6386  255 255 255
69.4509 -31.0321 15.1563  255 255 255
63.8042 -32.8998 0.804576  255 255 255
14.0397 -27.5907 33.7315  255 255 255
69.4263 -31.3494 15.3531  255 255 255
17.2922 -27.7769 33.1754  255 255 255
69.4042 -31.3867 14.9703  255 255 255
-26.3966 -28.725 22.4509  255 255 255
-2.12677 -27.2408 36.0595  255 255 255
66.4224 -32.5803 7.11318  255 255 255
-6.25585 -27.3256 35.6747  255 255 255
66.4345 -32.6979 7.56117  255 255 255
70.0002 -32.0514 15.2304  255 255 255
67.3559 -32.9838 9.84671  255 255 255
16.9767 -28.449 34.2474  255 255 255
68.0534 -33.0025 10.7862  255 255 255
69.9316 -32.4502 14.9883  255 255 255
69.7898 -32.4215 15.2162  255 255 255
15.5755 -28.8056 34.4518  255 255 255
-0.701225 -28.3371 35.6752  255 255 255
67.7313 -33.5295 10.0331  255 255 255
-11.2706 -28.2806 36.6395  255 255 255
8.74841 -28.8871 35.4236  255 255 255
68.7239 -33.6314 12.241  255 255 255
14.4629 -29.1702 34.6745  255 255 255
10.2983 -29.0403 35.2142  255 255 255
-11.1941 -28.6704 36.5261  255 255 255
65.5189 -35.0312 5.6885  255 255 255
13.8501 -29.6778 34.796  255 255 255
65.5176 -35.3669 5.44586  255 255 255
67.8569 -34.3932 12.4478  255 255 255
-23.4169 -30.5144 26.0502  255 255 255
-23.4113 -30.4888 26.0812  255 255 255
-10.7477 -28.9625 37.1563  255 255 255
-5.58764 -29.1123 36.8486  255 255 255
14.4512 -29.9114 34.0192  255 255 255
-11.2545 -29.0344 37.2915  255 255 255
-46.1923 -33.3665 7.14326  255 255 255
-52.3292 -33.2478 8.63522  255 255 255
-10.7126 -29.167 37.4045  255 255 255
66.6366 -35.8956 5.75205  255 255 255
70.2496 -34.626 14.4861  255 255 255
66.5449 -36.0691 5.45176  255 255 255
-13.053 -29.4725 36.9669  255 255 255
10.7909 -30.0995 36.3702  255 255 255
66.5947 -36.3267 5.3005  255 255 255
69.3281 -35.4999 11.8584  255 255 255
4.73967 -30.0346 36.955  255 255 255
-13.654 -29.8588 36.4297  255 255 255
9.78565 -30.162 36.7585  255 255 255
-46.6971 -34.2676 9.08678  255 255 255
-46.6971 -34.2676 9.08678  255 255 255
69.4464 -35.787 12.7145  255 255 255
-4.99709 -30.1113 38.0101  255 255 255
-4.99709 -30.1113 38.0101  255 255 255
-12.9297 -30.3787 36.3083  255 255 255
66.6716 -37.4658 4.93422  255 255 255
3.41173 -30.5911 37.7385  255 255 255
-3.02362 -30.6279 38.3377  255 255 255
-45.9336 -35.0993 10.3116  255 255 255
-0.649291 -30.8493 38.5423  255 255 255
5.81428 -31.0768 37.988  255 255 255
2.19881 -31.2468 38.6202  255 255 255
-1.39728 -31.256 38.9268  255 255 255
2.32509 -31.4756 38.5222  255 255 255
-23.9763 -33.8046 23.173  255 255 255
11.3575 -32.6892 33.5566  255 255 255
2.73658 -31.7684 38.2192  255 255 255
-12.3281 -32.1607 34.9674  255 255 255
10.8309 -32.7083 34.0784  255 255 255
15.4758 -33.6135 29.8897  255 255 255
-0.997272 -32.1552 38.2591  255 255 255
-13.5819 -32.8412 33.8254  255 255 255
2.10545 -32.4142 37.6423  255 255 255
-9.75742 -33.059 35.348  255 255 255
-22.3312 -35.0449 23.6867  255 255 255
0.118785 -33.4653 36.836  255 255 255
5.79741 -33.8657 36.315  255 255 255
0.193079 -34.208 36.3203  255 255 255
43.9541 -40.5225 9.88328  255 255 255
47.3586 -40.6177 9.94429  255 255 255
44.3801 -40.6105 9.95029  255 255 255
41.9944 -40.938 10.626  255 255 255
5.35481 -35.2614 34.8215  255 255 255
-10.8695 -35.9534 32.3186  255 255 255
-69.3245 -39.1566 16.9167  255 255 255
10.7677 -37.2944 29.6085  255 255 255
3.97363 -36.5418 33.8574  255 255 255
9.92231 -39.2112 29.1037  255 255 255
63.2183 -44.0599 13.8649  255 255 255
9.36115 -39.6049 28.7575  255 255 255
-1.8519 -39.067 32.2012  255 255 255
61.0762 -44.6944 14.8898  255 255 255
-16.1326 -39.7696 28.5641  255 255 255
-13.8078 -40.031 28.135  255 255 255
-14.0498 -40.196 28.0181  255 255 255
1.07774 -40.0459 31.612  255 255 255
51.6767 -45.2268 15.7738  255 255 255
49.9787 -46.909 18.5771  255 255 255
60.3603 -47.9074 18.51  255 255 255
60.3603 -47.9074 18.51  255 255 255
-5.47068 -43.5828 30.4538  255 255 255
54.7552 -49.2248 20.3895  255 255 255
-17.8782 -46.1195 27.3563  255 255 255
29.7345 -49.5743 21.0805  255 255 255
-37.3534 -47.9334 24.0624  255 255 255
-34.8991 -47.9467 24.4676  255 255 255
17.155 -48.5612 25.0178  255 255 255
-5.64239 -47.2418 31.8544  255 255 255
64.9514 -51.6541 23.496  255 255 255
54.7591 -51.5153 23.3878  255 255 255
30.0413 -51.1798 23.0375  255 255 255
56.9078 -51.7893 23.7654  255 255 255
58.3199 -51.8919 23.5564  255 255 255
-12.4037 -49.2476 27.7288  255 255 255
29.3023 -51.528 23.4689  255 255 255
29.3023 -51.528 23.4689  255 255 255
-30.7922 -49.8147 25.9604  255 255 255
61.7766 -53.1849 25.1116  255 255 255
25.9869 -52.4363 24.8246  255 255 255
25.5866 -52.5838 24.9635  255 255 255
26.0104 -53.2783 25.8866  255 255 255
25.5086 -53.2961 26.3658  255 255 255
25.6319 -53.4672 25.9484  255 255 255
-27.4755 -52.1681 28.628  255 255 255
-29.4748 -52.3463 28.9235  255 255 255
56.4055 -55.0236 27.3894  255 255 255
28.9209 -54.2599 27.4415  255 255 255
-38.4458 -53.2556 29.8177  255 255 255
-23.8352 -53.3557 29.7518  255 255 255
-37.1175 -53.2779 30.3018  255 255 255
50.4968 -55.5534 28.7062  255 255 255
-33.305 -53.5482 30.3446  255 255 255
-25.5076 -53.886 30.2761  255 255 255
23.4563 -55.6434 28.6764  255 255 255
50.5237 -56.4082 28.9409  255 255 255
-28.7897 -54.3001 30.9362  255 255 255
23.1969 -55.9591 29.0648  255 255 255
-35.6357 -54.4358 31.2249  255 255 255
48.0956 -57.0091 28.7336  255 255 255
-22.9888 -54.7688 31.3414  255 255 255
23.6332 -56.2072 30.2693  255 255 255
31.0841 -57.0923 30.2915  255 255 255
-39.2492 -55.2521 32.6275  255 255 255
-28.0071 -55.498 32.2118  255 255 255
-15.5514 -55.924 32.1085  255 255 255
32.3841 -57.8369 30.5063  255 255 255
51.0808 -58.3109 31.5535  255 255 255
-28.7976 -56.3417 33.7254  255 255 255
56.6481 -58.8534 32.2045  255 255 255
-23.8123 -56.6704 33.2862  255 255 255
-49.9939 -56.6182 34.4125  255 255 255
-20.1086 -56.9156 33.2701  255 255 255
17.5906 -58.1239 31.9849  255 255 255
-22.7589 -57.0697 33.7525  255 255 255
-3.70121 -57.7576 33.0141  255 255 255
-19.0727 -57.4259 33.812  255 255 255
46.0136 -59.7799 32.2402  255 255 255
-7.53968 -57.9022 33.6403  255 255 255
17.0774 -58.8169 32.7873  255 255 255
-29.0735 -57.5962 34.3596  255 255 255
15.6299 -58.6319 33.2784  255 255 255
-13.7214 -57.8257 33.9145  255 255 255
-7.57463 -58.0932 33.8073  255 255 255
-0.673271 -58.3487 33.6232  255 255 255
-32.8416 -57.5471 35.2297  255 255 255
0.408017 -58.4788 33.4887  255 255 255
-18.511 -57.86 34.502  255 255 255
-3.5215 -58.2047 34.125  255 255 255
14.445 -59.0197 33.0856  255 255 255
6.95057 -58.7873 33.4686  255 255 255
-10.4705 -58.2058 34.2603  255 255 255
40.9588 -59.9519 33.8426  255 255 255
35.0976 -59.9345 33.6375  255 255 255
-9.13908 -58.5947 34.6183  255 255 255
-9.13258 -58.6119 34.5751  255 255 255
2.95874 -58.9746 34.8893  255 255 255
23.2266 -59.7468 34.3238  255 255 255
21.31 -59.6753 34.401  255 255 255
-9.87908 -58.803 34.9084  255 255 255
-2.06538 -59.12 34.5018  255 255 255
7.07007 -59.2935 34.5863  255 255 255
7.15057 -59.481 34.2157  255 255 255
7.15057 -59.481 34.2157  255 255 255
-14.1764 -58.7805 35.1148  255 255 255
40.3167 -60.7793 33.7561  255 255 255
-1.08495 -59.4061 34.3543  255 255 255
48.5045 -60.7291 34.5551  255 255 255
-14.3935 -58.9757 35.3399  255 255 255
-3.09445 -59.4628 34.8452  255 255 255
-14.2366 -59.0251 35.6549  255 255 255
-14.2402 -59.0993 35.4694  255 255 255
18.1794 -60.4777 35.4764  255 255 255
-7.24052 -59.7583 36.4911  255 255 255
19.7582 -60.9537 35.2917  255 255 255
-7.53866 -60.0744 36.2799  255 255 255
41.6655 -62.0151 35.1092  255 255 255
41.6655 -62.0151 35.1092  255 255 255
-78.3037 53.6121 -10.9858  255 255 255
25.7967 74.97 -74.2096  255 255 255
-72.4382 54.9118 -15.2565  255 255 255
-73.016 54.4116 -14.776  255 255 255
48.1081 79.3526 -86.7502  255 255 255
-52.7532 58.3994 -27.7311  255 255 255
-52.767 58.445 -27.854  255 255 255
-35.7057 61.6841 -38.1435  255 255 255
62.4043 82.2212 -94.733  255 255 255
62.507 82.3027 -94.8942  255 255 255
-54.6477 57.8688 -26.2951  255 255 255
-67.3789 55.4565 -18.7373  255 255 255
-68.8163 55.1189 -17.9131  255 255 255
-68.6944 54.9106 -17.3281  255 255 255
-0.606645 68.6976 -59.3602  255 255 255
-0.606645 68.6976 -59.3602  255 255 255
28.4527 74.9093 -76.5538  255 255 255
-50.5937 58.4961 -29.4966  255 255 255
-42.7467 59.9336 -34.0846  255 255 255
-76.7457 53.0336 -12.2757  255 255 255
-36.1567 60.9635 -38.3869  255 255 255
-36.1145 60.9165 -38.4437  255 255 255
30.3498 74.6567 -77.688  255 255 255
-64.4174 55.3743 -21.2396  255 255 255
31.0401 74.5284 -78.4833  255 255 255
-70.9657 53.8915 -17.1234  255 255 255
52.0027 78.6693 -90.0353  255 255 255
58.3548 79.9764 -93.7688  255 255 255
61.7803 80.594 -95.4686  255 255 255
48.8652 77.7515 -88.4949  255 255 255
-41.1109 59.2537 -36.2151  255 255 255
52.3803 48.9198 -12.0768  255 255 255
-31.4765 61.0047 -42.0332  255 255 255
29.5683 73.3351 -77.705  255 255 255
27.311 73.0632 -77.257  255 255 255
-65.296 54.4152 -21.1785  255 255 255
59.9573 79.4065 -95.2683  255 255 255
-65.6954 54.3441 -21.324  255 255 255
6.41896 68.2855 -65.0008  255 255 255
-25.4715 61.4413 -45.8804  255 255 255
48.0661 51.2143 -20.3381  255 255 255
27.7436 72.3275 -78.0058  255 255 255
26.8196 72.0816 -77.801  255 255 255
54.9453 46.2132 -7.94113  255 255 255
29.3512 72.1597 -78.8738  255 255 255
23.0644 70.8945 -75.6479  255 255 255
27.548 71.5397 -77.4041  255 255 255
52.132 48.1291 -13.3357  255 255 255
59.7818 78.2272 -96.4435  255 255 255
-66.2497 53.2414 -21.3055  255 255 255
-65.011 53.4963 -22.2967  255 255 255
29.9027 72.0154 -79.8141  255 255 255
-64.3214 53.6475 -22.9388  255 255 255
-7.32155 64.3974 -57.9532  255 255 255
37.0692 73.4226 -84.1432  255 255 255
-63.9775 53.5364 -23.0906  255 255 255
38.4787 73.3154 -83.9013  255 255 255
38.8582 73.6707 -85.1915  255 255 255
47.8462 50.6128 -21.4462  255 255 255
61.9975 78.2442 -98.2485  255 255 255
68.2608 79.1983 -101.022  255 255 255
-65.3162 52.6822 -21.2711  255 255 255
-82.2275 49.9025 -11.4915  255 255 255
-82.2275 49.9025 -11.4915  255 255 255
-7.0891 63.7902 -57.6467  255 255 255
22.991 70.0082 -75.7532  255 255 255
39.4435 73.3844 -85.7348  255 255 255
67.4031 79.0524 -101.36  255 255 255
19.1955 69.2733 -74.2117  255 255 255
52.9399 47.1393 -13.1518  255 255 255
-131.736 76.3605 -80.1712  255 255 255
-52.8243 55.1145 -30.4444  255 255 255
-52.7137 54.8911 -29.825  255 255 255
50.3141 36.0056 17.6021  255 255 255
50.2984 35.9912 17.6166  255 255 255
51.2712 47.79 -15.5412  255 255 255
-4.46509 64.0223 -59.8871  255 255 255
-4.44616 64.0087 -59.9074  255 255 255
49.9931 48.3543 -18.2962  255 255 255
50.0001 36.2844 15.2359  255 255 255
50.3847 36.5174 14.6649  255 255 255
50.5774 35.8319 16.3736  255 255 255
-80.3493 49.3907 -13.3335  255 255 255
67.128 77.0978 -102.357  255 255 255
65.3543 76.5358 -101.307  255 255 255
11.6234 66.1306 -71.426  255 255 255
50.9124 35.1704 16.4066  255 255 255
50.9272 35.1641 16.392  255 255 255
11.1438 65.7305 -71.4776  255 255 255
31.8394 61.9147 -60.7699  255 255 255
-65.9547 50.9645 -23.4227  255 255 255
66.9222 76.1454 -103.021  255 255 255
-15.6793 60.0394 -55.3701  255 255 255
-66.0354 50.6971 -23.9241  255 255 255
55.326 43.2704 -9.20754  255 255 255
-82.3135 47.6134 -13.0496  255 255 255
53.0632 32.3616 21.6269  255 255 255
-77.3738 48.2443 -16.7239  255 255 255
63.3253 75.4705 -105.247  255 255 255
-49.7144 52.7095 -35.115  255 255 255
48.5928 70.9966 -94.6195  255 255 255
54.4211 72.3155 -98.5312  255 255 255
-11.4112 59.1754 -59.6548  255 255 255
-11.4163 59.1831 -59.6426  255 255 255
-39.2728 54.0692 -42.1915  255 255 255
-35.3455 54.6746 -44.8565  255 255 255
-35.3711 54.6763 -44.8189  255 255 255
50.8574 33.4183 15.3297  255 255 255
-14.3731 58.0233 -57.9206  255 255 255
-14.3731 58.0233 -57.9206  255 255 255
-51.1003 51.6034 -35.3917  255 255 255
-51.1003 51.6034 -35.3917  255 255 255
-74.9819 47.4887 -19.9107  255 255 255
-74.3181 47.6795 -20.7357  255 255 255
50.5933 33.2313 14.6464  255 255 255
47.18 69.3236 -95.0809  255 255 255
47.1297 69.2694 -94.8925  255 255 255
-74.5837 47.3037 -20.3188  255 255 255
-115.226 61.7607 -58.8038  255 255 255
-9.48319 58.3935 -61.0932  255 255 255
53.432 31.262 19.235  255 255 255
-107.758 57.2235 -48.8802  255 255 255
53.2324 42.0347 -14.8131  255 255 255
45.0305 67.5729 -94.6043  255 255 255
-113.391 59.8095 -57.576  255 255 255
52.5638 31.2166 17.1054  255 255 255
55.8856 28.6877 23.9001  255 255 255
-84.1093 44.2604 -15.2546  255 255 255
-17.0172 55.4492 -58.4737  255 255 255
-17.0172 55.4492 -58.4737  255 255 255
56.597 28.1571 25.3803  255 255 255
50.403 43.0465 -20.7639  255 255 255
50.1068 43.041 -21.7082  255 255 255
-51.4882 49.3056 -36.886  255 255 255
-42.1279 50.7779 -43.0947  255 255 255
-36.0795 51.7292 -46.5616  255 255 255
-63.1356 47.2009 -29.543  255 255 255
-57.2479 48.2552 -33.6101  255 255 255
51.4496 30.9838 14.898  255 255 255
51.2159 30.8827 14.6753  255 255 255
53.3471 29.5126 18.1434  255 255 255
55.9135 28.1062 22.6338  255 255 255
-18.4478 53.8655 -58.8339  255 255 255
-18.4568 53.8305 -58.7522  255 255 255
-9.23031 55.0468 -63.7198  255 255 255
-9.23031 55.0468 -63.7198  255 255 255
-101.305 51.3275 -41.4292  255 255 255
-78.1392 43.9873 -20.6855  255 255 255
-50.1266 48.0841 -39.0494  255 255 255
48.3738 42.2112 -25.5543  255 255 255
29.7611 61.198 -89.4905  255 255 255
49.8785 30.6444 11.1221  255 255 255
-18.1026 52.7278 -60.0422  255 255 255
52.8968 28.749 16.4254  255 255 255
52.8968 28.749 16.4254  255 255 255
56.7478 26.7274 23.5217  255 255 255
52.1921 39.0235 -18.1008  255 255 255
22.4747 59.4451 -85.7625  255 255 255
19.8964 58.7406 -84.3283  255 255 255
-37.3701 48.6767 -48.2505  255 255 255
59.1875 24.5926 28.7899  255 255 255
-11.1865 52.5982 -64.9117  255 255 255
59.8379 23.8972 29.9534  255 255 255
-9.33533 52.7499 -66.3659  255 255 255
59.723 24.0137 29.3854  255 255 255
48.6351 62.4491 -102.326  255 255 255
48.7477 62.5668 -102.575  255 255 255
59.9135 23.5682 29.9902  255 255 255
59.9612 23.593 29.9091  255 255 255
52.8034 37.906 -18.8804  255 255 255
52.8426 27.7044 15.5138  255 255 255
59.9243 23.413 28.887  255 255 255
23.8965 57.1568 -88.2842  255 255 255
60.7192 22.6691 30.8554  255 255 255
-42.9882 45.51 -46.2613  255 255 255
-29.6196 47.6378 -55.5592  255 255 255
50.2699 28.1965 10.0069  255 255 255
-66.9651 41.7979 -31.2513  255 255 255
50.0912 27.998 9.53545  255 255 255
50.4268 27.7717 10.0542  255 255 255
55.6952 24.8649 20.3341  255 255 255
60.2308 22.2174 28.6255  255 255 255
60.5578 21.9942 29.4226  255 255 255
55.7293 24.5614 20.0585  255 255 255
55.7293 24.5614 20.0585  255 255 255
-103.922 47.474 -49.5102  255 255 255
-49.6559 43.321 -42.8114  255 255 255
53.211 25.789 14.7345  255 255 255
-28.1296 46.5834 -57.8557  255 255 255
18.8673 53.9947 -87.7998  255 255 255
56.2624 23.8959 20.5405  255 255 255
-27.9325 46.1803 -58.1845  255 255 255
-38.0184 44.6587 -51.629  255 255 255
53.1201 25.4453 14.5326  255 255 255
53.5741 25.0899 15.4916  255 255 255
-39.2678 44.1047 -50.8901  255 255 255
-59.852 41.2112 -38.6016  255 255 255
-64.216 40.3453 -35.2934  255 255 255
-64.2039 40.364 -35.303  255 255 255
-48.8541 42.4609 -45.3608  255 255 255
61.5498 20.4272 30.2163  255 255 255
50.8041 25.7956 9.8166  255 255 255
54.047 23.9324 16.2167  255 255 255
48.6506 35.608 -29.1919  255 255 255
49.9407 34.8915 -26.619  255 255 255
51.873 33.3781 -22.4429  255 255 255
-58.2339 39.806 -40.263  255 255 255
58.4247 21.1182 23.6201  255 255 255
-135.934 54.647 -86.9018  255 255 255
52.5374 33.1665 -23.377  255 255 255
52.5374 33.1665 -23.377  255 255 255
-96.6967 40.9614 -40.7754  255 255 255
47.3109 34.906 -32.6864  255 255 255
48.5792 25.3771 4.39581  255 255 255
-49.0945 39.9516 -47.3119  255 255 255
-49.0629 39.9412 -47.3299  255 255 255
-9.14312 45.3936 -73.2554  255 255 255
-52.8811 39.2626 -44.7662  255 255 255
49.2821 24.8168 5.60576  255 255 255
-65.1266 37.5693 -36.9327  255 255 255
-65.077 37.5284 -36.8377  255 255 255
-64.3236 37.4802 -36.6587  255 255 255
-49.7322 39.227 -47.1315  255 255 255
51.8117 31.5856 -23.9946  255 255 255
-80.9136 34.8731 -27.1096  255 255 255
48.5989 24.5069 3.76268  255 255 255
51.407 23.2302 9.28349  255 255 255
-79.9031 34.6407 -28.2474  255 255 255
-26.7871 41.3277 -63.1988  255 255 255
51.4485 22.7452 9.49393  255 255 255
-75.5405 35.3229 -31.9374  255 255 255
-79.9426 34.2072 -28.4181  255 255 255
-80.013 34.2506 -28.6065  255 255 255
-76.291 34.7847 -31.7301  255 255 255
-74.9412 34.2364 -32.4659  255 255 255
53.2867 29.2768 -22.2056  255 255 255
61.0975 17.3559 27.5357  255 255 255
60.9993 17.3153 27.6182  255 255 255
50.4112 22.1887 6.64017  255 255 255
54.3158 28.4399 -20.2294  255 255 255
-33.3489 38.7526 -60.3733  255 255 255
-80.21 33.1697 -29.546  255 255 255
-28.8305 39.4151 -63.6191  255 255 255
50.4235 30.2073 -28.7913  255 255 255
53.8267 28.4422 -21.254  255 255 255
54.4974 28.0541 -20.1583  255 255 255
-64.5694 33.2024 -34.6531  255 255 255
-64.8326 32.824 -34.2052  255 255 255
54.4937 27.6191 -20.339  255 255 255
-40.5246 37.0712 -56.0817  255 255 255
-40.5558 37.1199 -56.2848  255 255 255
-130.301 44.8496 -76.4329  255 255 255
-34.6553 37.6987 -61.1955  255 255 255
-12.0655 40.4243 -75.7902  255 255 255
58.349 17.3961 21.79  255 255 255
-12.781 39.6849 -75.8821  255 255 255
-83.1428 31.1734 -29.2739  255 255 255
53.1853 19.2833 11.3663  255 255 255
53.2059 19.2875 11.3355  255 255 255
53.1955 19.2908 11.3395  255 255 255
-63.5654 33.0304 -42.1055  255 255 255
-50.5781 34.9045 -53.3921  255 255 255
-61.5337 32.9164 -43.8748  255 255 255
16.0884 38.4036 -76.8012  255 255 255
-66.6869 32.3162 -41.2282  255 255 255
-9.76388 38.0486 -74.8806  255 255 255
58.7094 16.4401 21.6126  255 255 255
53.8836 18.4653 12.1885  255 255 255
57.0976 17.1585 18.0358  255 255 255
59.4944 15.9312 22.9051  255 255 255
59.4289 15.8977 22.9992  255 255 255
50.5232 19.7812 4.18007  255 255 255
50.413 19.7143 4.4577  255 255 255
58.7459 16.0315 21.2636  255 255 255
57.0059 16.6997 18.1544  255 255 255
50.1214 19.6228 4.25685  255 255 255
-33.6615 34.3983 -64.4652  255 255 255
-8.1434 35.4755 -71.9213  255 255 255
-58.0485 31.6881 -47.7688  255 255 255
49.5673 19.2525 2.58192  255 255 255
54.0879 17.2523 12.1948  255 255 255
-77.665 29.6595 -35.3978  255 255 255
60.2987 14.6794 23.9448  255 255 255
60.225 14.6541 23.9919  255 255 255
52.7699 17.726 8.95869  255 255 255
60.6124 14.4002 24.7333  255 255 255
60.6124 14.4002 24.7333  255 255 255
47.7083 19.485 -0.873066  255 255 255
60.0944 14.5592 22.9492  255 255 255
-74.9176 29.989 -40.8975  255 255 255
52.386 17.4657 8.2204  255 255 255
-74.6398 30.0209 -41.5062  255 255 255
-56.1975 30.9891 -50.2803  255 255 255
-47.2984 31.9763 -56.503  255 255 255
-34.9076 33.2901 -64.7666  255 255 255
57.4749 15.1707 18.1049  255 255 255
57.4923 15.1809 18.0722  255 255 255
-75.0254 29.6293 -41.4743  255 255 255
48.229 18.4788 -0.184225  255 255 255
-79.4627 27.978 -35.2999  255 255 255
-84.7369 27.255 -31.6171  255 255 255
-66.2379 28.9372 -44.2916  255 255 255
61.6338 12.8406 26.0215  255 255 255
55.5702 15.1892 13.7891  255 255 255
55.6288 15.1997 13.7867  255 255 255
-41.6905 30.9224 -61.5416  255 255 255
-2.02081 31.2273 -67.2451  255 255 255
52.8496 16.172 7.80578  255 255 255
50.6095 16.4942 3.68886  255 255 255
-39.3876 30.261 -62.2097  255 255 255
-85.344 25.0371 -31.68  255 255 255
40.7344 28.8679 -67.6928  255 255 255
46.4693 23.884 -42.1615  255 255 255
50.1908 15.5123 2.35703  255 255 255
53.0731 14.5549 7.62892  255 255 255
-63.0139 26.3702 -46.9302  255 255 255
-73.3783 26.3596 -45.0737  255 255 255
-0.290658 27.7505 -63.9763  255 255 255
58.8203 12.1378 19.118  255 255 255
58.7841 12.1744 19.1668  255 255 255
63.104 10.4531 27.7635  255 255 255
59.8732 11.9489 18.8659  255 255 255
47.2004 22.4638 -40.8807  255 255 255
47.185 22.5417 -40.8759  255 255 255
-80.4887 24.515 -37.2046  255 255 255
-44.3478 27.3032 -60.687  255 255 255
-79.6393 24.2593 -37.4179  255 255 255
59.3901 11.4287 19.8581  255 255 255
59.1346 11.3723 19.5763  255 255 255
-75.3594 25.1944 -46.2415  255 255 255
59.6179 11.0979 19.742  255 255 255
26.6095 25.9116 -65.0912  255 255 255
-67.5122 24.6375 -46.927  255 255 255
49.7661 20.5806 -35.841  255 255 255
-84.5039 23.1112 -35.5517  255 255 255
53.4259 12.8498 7.64228  255 255 255
-81.3919 23.141 -38.7829  255 255 255
48.6494 14.0892 -1.95149  255 255 255
49.1651 14.0222 -1.99197  255 255 255
49.1832 13.9769 -1.94859  255 255 255
53.7846 12.2551 7.86571  255 255 255
53.7041 12.2045 8.0875  255 255 255
48.9804 13.6685 -2.2039  255 255 255
59.1179 10.1759 18.3749  255 255 255
-1.09814 22.8065 -58.1114  255 255 255
54.5929 11.36 9.00966  255 255 255
-38.3261 22.9598 -55.5849  255 255 255
61.0722 8.93336 21.9071  255 255 255
-35.971 22.4208 -54.5909  255 255 255
58.9671 9.44709 17.9325  255 255 255
62.7237 7.91151 26.0551  255 255 255
62.9553 7.83539 26.5278  255 255 255
53.8694 10.7379 6.82356  255 255 255
62.9935 7.60773 26.3794  255 255 255
51.4588 11.3908 2.51087  255 255 255
-18.281 20.7387 -54.4873  255 255 255
58.8921 8.8533 17.3886  255 255 255
29.0429 20.1722 -57.3177  255 255 255
-85.247 19.5945 -37.2958  255 255 255
59.1223 8.44788 16.6741  255 255 255
-15.071 19.9694 -53.6754  255 255 255
-82.7376 19.4 -38.1794  255 255 255
-20.2247 19.8551 -53.1596  255 255 255
-6.45623 19.53 -52.6881  255 255 255
50.5195 10.6498 1.29664  255 255 255
-43.7752 19.7475 -50.8079  255 255 255
52.7918 15.4044 -31.8984  255 255 255
52.2112 10.1056 2.94244  255 255 255
33.8488 18.582 -56.1624  255 255 255
52.2284 9.68163 3.09087  255 255 255
-18.4398 18.032 -51.3443  255 255 255
63.9983 5.82635 27.0641  255 255 255
-70.0887 18.9115 -49.9578  255 255 255
-22.3087 16.7876 -49.1041  255 255 255
-19.1676 16.8806 -50.2868  255 255 255
-13.5208 16.7569 -50.2625  255 255 255
-15.2573 16.7073 -50.3156  255 255 255
60.9158 6.17036 20.1631  255 255 255
51.9557 13.4518 -33.0341  255 255 255
54.0558 8.0637 5.79019  255 255 255
57.4359 7.08676 12.9896  255 255 255
57.4901 7.09282 12.9522  255 255 255
56.6632 7.07651 11.1975  255 255 255
56.666 7.07152 11.1985  255 255 255
-60.7489 16.9412 -48.2168  255 255 255
-79.3282 17.2397 -46.3454  255 255 255
48.407 8.76992 -6.04827  255 255 255
-13.7847 14.333 -47.6152  255 255 255
51.0049 7.62623 -1.22732  255 255 255
52.0179 7.41794 0.497859  255 255 255
-16.5789 14.2029 -47.5374  255 255 255
-57.3856 13.9632 -44.8091  255 255 255
52.3388 6.57705 0.0499123  255 255 255
-18.6898 12.9196 -45.4549  255 255 255
55.4831 5.25918 7.0441  255 255 255
-34.3282 12.3086 -44.8054  255 255 255
63.5425 2.81543 23.8544  255 255 255
58.1989 3.97223 13.0396  255 255 255
-15.0142 11.1985 -44.0694  255 255 255
58.4681 3.57743 12.9872  255 255 255
-15.8761 10.5334 -42.7086  255 255 255
-4.83383 2.58476 22.8795  255 255 255
-1.88916 2.35481 21.6234  255 255 255
-72.1597 10.7613 -40.4598  255 255 255
52.1312 4.17099 -0.885141  255 255 255
52.5442 3.86295 -0.190828  255 255 255
50.4934 4.25628 -5.06492  255 255 255
-10.0382 1.82606 21.4331  255 255 255
51.3006 3.61841 -3.04581  255 255 255
56.1933 2.3919 6.83653  255 255 255
56.2312 2.39962 6.73807  255 255 255
51.4958 3.23536 -3.14061  255 255 255
59.0066 1.65748 11.9293  255 255 255
-54.6636 8.19845 -37.9404  255 255 255
62.8676 0.573202 21.2351  255 255 255
53.5081 2.55518 1.23733  255 255 255
47.7883 3.76368 -11.354  255 255 255
53.038 2.63009 0.195275  255 255 255
-25.1498 7.13699 -39.7365  255 255 255
57.6554 1.18647 9.50026  255 255 255
57.7051 0.864887 9.14941  255 255 255
57.0688 0.869981 7.73363  255 255 255
64.7082 -0.773405 24.41  255 255 255
57.3952 0.805448 7.89112  255 255 255
57.2432 0.758595 8.19705  255 255 255
58.2682 0.52338 10.5638  255 255 255
57.7754 0.426006 9.21497  255 255 255
57.7754 0.426006 9.21497  255 255 255
60.8408 -0.10032 13.9998  255 255 255
60.8481 -0.121981 14.0099  255 255 255
62.8264 -0.683085 20.0495  255 255 255
62.8264 -0.683085 20.0495  255 255 255
64.4802 -1.08497 23.7508  255 255 255
63.0341 -0.952251 19.4031  255 255 255
62.6597 -0.999012 20.0212  255 255 255
-17.9897 1.21278 3.02905  255 255 255
54.265 0.329843 1.34506  255 255 255
57.6236 -0.412825 8.41531  255 255 255
62.6117 -1.43095 19.6288  255 255 255
-39.6028 4.08579 -34.0044  255 255 255
63.149 -1.66744 20.5332  255 255 255
55.6259 -0.364224 4.77007  255 255 255
-18.9753 0.383551 3.97374  255 255 255
62.6155 -1.6947 19.3806  255 255 255
55.5979 -0.452773 3.98613  255 255 255
55.5979 -0.452773 3.98613  255 255 255
0.124864 -1.95126 27.4066  255 255 255
59.6616 -1.1963 12.6478  255 255 255
58.5935 -1.08196 10.1666  255 255 255
63.5546 -2.00593 20.9025  255 255 255
61.9291 -1.78559 18.0003  255 255 255
61.8493 -1.77763 17.3487  255 255 255
62.8154 -2.03026 19.3903  255 255 255
62.8153 -2.01525 19.3777  255 255 255
59.9502 -1.54644 13.0135  255 255 255
-105.499 4.85632 -30.8118  255 255 255
59.2218 -1.57194 11.2286  255 255 255
59.2218 -1.57194 11.2286  255 255 255
46.7677 0.555528 -16.2484  255 255 255
62.9275 -2.41025 19.51  255 255 255
60.362 -2.02138 13.5988  255 255 255
-20.3094 -0.565609 5.38145  255 255 255
56.1229 -1.38983 4.39348  255 255 255
62.5112 -2.58846 18.6262  255 255 255
63.2829 -2.80983 18.925  255 255 255
52.0839 -1.14016 -4.46797  255 255 255
62.5183 -2.94664 18.3382  255 255 255
59.6077 -2.44908 11.2866  255 255 255
59.4921 -2.51719 11.4775  255 255 255
61.2152 -2.78624 11.5699  255 255 255
59.0484 -2.61246 10.1138  255 255 255
59.0936 -2.6164 10.0763  255 255 255
-44.7417 1.41651 -31.2031  255 255 255
61.4192 -3.1161 15.1838  255 255 255
62.1624 -3.36609 17.7674  255 255 255
59.7973 -3.03484 11.4592  255 255 255
-23.0245 -1.87305 6.99421  255 255 255
62.1507 -3.52425 16.8375  255 255 255
54.1099 -2.40851 -0.968527  255 255 255
61.8694 -3.66689 15.7817  255 255 255
61.7834 -3.6967 15.9117  255 255 255
61.9476 -3.82852 17.0457  255 255 255
60.5836 -3.59981 12.8093  255 255 255
60.5805 -3.60091 12.8154  255 255 255
63.1578 -4.03187 18.8744  255 255 255
63.1578 -4.03187 18.8744  255 255 255
-71.0417 0.666866 -26.5775  255 255 255
-22.7843 -2.63518 7.84587  255 255 255
54.3376 -3.02796 -0.689717  255 255 255
42.055 -0.977021 -34.4223  255 255 255
54.5988 -3.20859 -0.336136  255 255 255
65.3171 -4.83268 23.4865  255 255 255
60.1574 -4.18669 11.6062  255 255 255
-47.4174 -0.409491 -28.4964  255 255 255
54.5095 -3.46569 -0.660031  255 255 255
-10.9414 -4.62499 29.256  255 255 255
51.3553 -3.11143 -7.88185  255 255 255
63.0248 -4.80997 18.3323  255 255 255
62.4202 -4.87073 16.7729  255 255 255
54.8391 -4.05429 -0.420621  255 255 255
63.154 -5.22629 18.0735  255 255 255
63.1337 -5.21409 18.095  255 255 255
-5.59292 -5.42685 32.0972  255 255 255
65.2703 -5.55734 22.1102  255 255 255
55.1246 -4.34159 0.112687  255 255 255
61.2244 -5.29182 13.3566  255 255 255
54.8899 -4.72604 -0.774676  255 255 255
62.5172 -5.83545 15.958  255 255 255
49.7436 -4.48932 -12.6239  255 255 255
-19.6263 -4.98732 15.0929  255 255 255
62.4605 -5.99484 15.6154  255 255 255
-67.2714 -2.18179 -26.1353  255 255 255
47.2263 -4.84159 -17.8576  255 255 255
64.7165 -6.68374 20.7639  255 255 255
-19.8038 -5.52978 15.8313  255 255 255
59.2766 -6.26394 8.10383  255 255 255
60.3419 -6.36593 10.8177  255 255 255
62.3524 -6.8955 14.7503  255 255 255
62.2814 -6.91266 14.8523  255 255 255
5.79996 -7.14327 32.3394  255 255 255
48.0308 -5.90195 -17.2484  255 255 255
55.3166 -6.69887 -0.93493  255 255 255
59.4511 -7.18254 7.71239  255 255 255
64.6458 -8.00079 20.0309  255 255 255
57.679 -7.43392 3.79988  255 255 255
58.8974 -7.54442 6.47351  255 255 255
66.3668 -8.29679 22.9881  255 255 255
-24.7061 -6.81343 13.2459  255 255 255
2.09008 -7.97955 33.9819  255 255 255
60.6895 -7.81964 10.2823  255 255 255
60.6932 -7.82724 10.2939  255 255 255
-17.1786 -7.59701 26.0223  255 255 255
62.6492 -8.06967 13.543  255 255 255
66.2855 -8.71892 22.8155  255 255 255
-3.6909 -8.33485 34.2797  255 255 255
58.8268 -8.22735 5.34511  255 255 255
-2.22616 -8.397 34.3228  255 255 255
1.80532 -8.62059 34.415  255 255 255
56.8416 -8.42972 1.10351  255 255 255
-46.8275 -6.32132 -23.305  255 255 255
-70.3678 -5.9462 -22.27  255 255 255
62.8475 -9.00953 14.9288  255 255 255
-14.3109 -8.59082 29.5589  255 255 255
-1.99585 -9.02013 34.7434  255 255 255
-2.00355 -9.01917 34.8318  255 255 255
-8.09503 -9.12682 33.5361  255 255 255
9.2355 -9.37599 31.6564  255 255 255
46.3503 -8.63514 -22.4404  255 255 255
-56.4417 -7.53889 -20.546  255 255 255
61.599 -9.89581 11.0911  255 255 255
4.0705 -9.88523 34.3501  255 255 255
48.6315 -9.44686 -18.2306  255 255 255
2.71347 -9.97737 34.5496  255 255 255
46.6924 -9.91908 -23.7538  255 255 255
56.7991 -10.4956 -0.503215  255 255 255
59.4594 -10.6609 6.46121  255 255 255
24.0992 -10.3937 12.8416  255 255 255
60.1318 -10.7354 8.25046  255 255 255
58.4968 -10.7582 3.2594  255 255 255
58.6775 -10.7796 3.7267  255 255 255
47.5749 -10.3931 -24.0777  255 255 255
47.0423 -10.4454 -22.3479  255 255 255
56.9352 -10.9515 -0.424706  255 255 255
59.4488 -11.0356 5.60441  255 255 255
-27.7603 -9.99357 16.819  255 255 255
58.9705 -11.0318 4.14493  255 255 255
66.189 -11.3656 20.8907  255 255 255
-13.3706 -10.457 31.1339  255 255 255
-69.279 -8.97653 -18.3715  255 255 255
58.5489 -11.3307 2.18732  255 255 255
59.0417 -11.4924 4.04258  255 255 255
59.2967 -11.4591 4.71014  255 255 255
64.4753 -11.8229 16.7608  255 255 255
66.7677 -11.9813 21.9041  255 255 255
58.7095 -11.7618 2.94447  255 255 255
59.7436 -11.8202 5.53887  255 255 255
47.5169 -11.4784 -22.9109  255 255 255
61.1335 -11.8459 8.57083  255 255 255
66.2193 -12.0325 20.8463  255 255 255
57.0985 -11.8482 -0.766927  255 255 255
59.4829 -11.8777 4.82915  255 255 255
64.3179 -12.0308 16.5743  255 255 255
64.3179 -12.0308 16.5743  255 255 255
60.6047 -12.3173 7.29437  255 255 255
62.3486 -12.4704 11.7628  255 255 255
-25.993 -11.3188 18.2427  255 255 255
56.9594 -12.5121 -1.29402  255 255 255
57.0012 -12.5093 -1.39929  255 255 255
59.1311 -12.5318 3.50029  255 255 255
66.6473 -12.7661 21.053  255 255 255
50.9871 -12.5738 -14.5594  255 255 255
-49.2558 -11.2017 -16.4014  255 255 255
-8.33694 -11.8746 34.4069  255 255 255
60.4252 -12.9216 5.7633  255 255 255
-52.0225 -11.3982 -16.0401  255 255 255
60.0015 -12.9874 4.39443  255 255 255
-54.6028 -11.515 -15.7459  255 255 255
60.7038 -13.1304 6.87399  255 255 255
60.6953 -13.1285 6.87645  255 255 255
-52.3951 -11.5431 -15.6287  255 255 255
-3.59518 -12.2306 35.5871  255 255 255
63.6169 -13.2256 13.6113  255 255 255
56.0488 -13.4947 -4.13155  255 255 255
-52.2546 -11.9816 -15.267  255 255 255
-52.2684 -11.9733 -15.2418  255 255 255
49.259 -13.5669 -20.3562  255 255 255
58.158 -13.776 0.135466  255 255 255
60.7681 -13.9154 7.01631  255 255 255
65.8471 -13.9428 18.6291  255 255 255
-18.9538 -12.6922 25.6989  255 255 255
58.3926 -14.125 0.602884  255 255 255
-19.6136 -12.9255 24.4627  255 255 255
-48.4207 -12.9543 -14.2214  255 255 255
-49.1773 -13.1625 -13.9511  255 255 255
-52.5832 -13.1473 -13.8115  255 255 255
66.2459 -14.5028 19.4563  255 255 255
66.2997 -14.4906 19.4123  255 255 255
53.5324 -14.8 -10.437  255 255 255
66.1363 -14.5541 19.0045  255 255 255
64.4711 -14.6945 15.3875  255 255 255
-20.2456 -13.359 24.9578  255 255 255
58.4609 -14.823 0.330793  255 255 255
58.3418 -14.8631 0.533015  255 255 255
66.9339 -14.8328 20.4253  255 255 255
1.18574 -13.7705 35.8666  255 255 255
51.6611 -15.3736 -14.9481  255 255 255
19.3149 -14.4384 22.3605  255 255 255
60.0187 -15.3262 3.74319  255 255 255
-63.3717 -13.9107 -12.3896  255 255 255
58.1295 -15.5717 -0.585261  255 255 255
-4.03543 -14.1277 35.7782  255 255 255
58.8875 -15.8793 0.609583  255 255 255
-27.7127 -14.1783 21.6303  255 255 255
-55.4733 -14.5551 -12.808  255 255 255
-21.6047 -14.314 26.0709  255 255 255
58.0217 -16.1889 -1.06012  255 255 255
10.4708 -15.0174 32.391  255 255 255
58.5417 -16.5754 -0.766605  255 255 255
-55.0148 -15.2439 -11.4531  255 255 255
-17.3614 -14.8477 28.3  255 255 255
-17.3469 -14.8624 28.2589  255 255 255
66.5476 -16.486 18.6799  255 255 255
-6.81352 -15.2545 35.2722  255 255 255
55.3921 -17.4896 -9.41554  255 255 255
-20.2489 -15.3593 27.2455  255 255 255
7.20926 -15.8276 34.229  255 255 255
59.9734 -17.655 2.00078  255 255 255
-3.26262 -15.637 36.0891  255 255 255
60.5559 -17.732 3.30311  255 255 255
59.6662 -17.882 1.60398  255 255 255
58.2375 -18.0594 -2.29061  255 255 255
58.2092 -18.0597 -2.23433  255 255 255
61.2197 -17.9316 4.47575  255 255 255
67.0541 -17.6553 19.1941  255 255 255
66.5783 -17.7447 18.4709  255 255 255
66.8436 -17.8484 18.6358  255 255 255
66.7525 -17.8389 18.7769  255 255 255
57.4438 -18.7608 -4.09071  255 255 255
-18.3272 -16.3466 28.4715  255 255 255
63.5126 -18.3315 9.89279  255 255 255
63.4976 -18.3336 9.89798  255 255 255
-40.8843 -17.5013 -9.63992  255 255 255
-40.8787 -17.5081 -9.64678  255 255 255
-6.73384 -16.3396 35.4037  255 255 255
26.3195 -17.5132 20.6052  255 255 255
59.3731 -19.1183 -0.0885319  255 255 255
-65.7317 -17.6678 -9.26917  255 255 255
-57.2455 -17.75 -8.80741  255 255 255
66.3132 -18.6563 16.8011  255 255 255
-1.34056 -16.8181 36.1515  255 255 255
58.2923 -19.6585 -3.40631  255 255 255
61.2606 -19.4286 3.65008  255 255 255
63.1673 -19.2593 8.02312  255 255 255
-12.2876 -17.0306 32.8024  255 255 255
-64.3292 -18.2222 -7.73595  255 255 255
-27.8014 -17.2484 25.2141  255 255 255
-15.8492 -17.1604 29.922  255 255 255
-53.1887 -19.1369 -7.1048  255 255 255
67.7234 -19.679 19.0262  255 255 255
60.3811 -20.6129 0.789773  255 255 255
-26.8859 -17.9328 25.8945  255 255 255
-63.5836 -19.1783 -6.56837  255 255 255
-52.7935 -19.7253 -6.46211  255 255 255
-60.2652 -19.6195 -6.54528  255 255 255
-11.8875 -18.1756 33.0837  255 255 255
-15.2547 -18.2933 30.552  255 255 255
58.7755 -21.4218 -3.38345  255 255 255
60.1278 -21.2507 -0.30413  255 255 255
-84.4484 -19.5673 -4.66  255 255 255
-57.4225 -20.068 -5.84435  255 255 255
-25.1989 -18.611 26.6892  255 255 255
-20.1163 -18.5585 29.3729  255 255 255
63.2375 -21.2222 7.01454  255 255 255
63.1963 -21.2018 7.04537  255 255 255
12.1244 -18.9488 31.3638  255 255 255
64.6017 -21.1474 10.8197  255 255 255
-10.3083 -18.7482 33.73  255 255 255
65.2503 -21.3247 13.3703  255 255 255
-57.7203 -20.6357 -5.34114  255 255 255
-3.99809 -18.9033 35.8749  255 255 255
67.9223 -21.2543 18.598  255 255 255
-53.9476 -20.8276 -5.53909  255 255 255
-53.9476 -20.8276 -5.53909  255 255 255
20.7529 -20.0819 24.4178  255 255 255
59.5696 -22.3934 -2.60344  255 255 255
64.7187 -22.0208 5.98056  255 255 255
12.0066 -19.6492 30.5606  255 255 255
63.6685 -21.9807 7.25078  255 255 255
-58.6791 -21.009 -5.38302  255 255 255
67.5192 -21.5235 17.3768  255 255 255
-3.595 -19.1907 35.8918  255 255 255
59.5518 -22.8551 -2.49272  255 255 255
67.1638 -22.306 16.2136  255 255 255
-28.6847 -20.4501 21.3653  255 255 255
15.5892 -20.6181 29.6546  255 255 255
68.3429 -22.3939 18.7699  255 255 255
-10.2201 -20.4932 33.4664  255 255 255
-56.734 -22.7928 -3.10038  255 255 255
59.1207 -24.7775 -4.41976  255 255 255
60.305 -24.6483 -1.93529  255 255 255
-47.6994 -23.1822 -3.31572  255 255 255
60.8129 -24.7467 -1.02677  255 255 255
-3.34792 -20.8236 35.3865  255 255 255
1.23957 -20.9421 35.3359  255 255 255
6.13775 -21.285 33.8861  255 255 255
-56.78 -23.3416 -2.44304  255 255 255
-61.7965 -23.5634 -2.168  255 255 255
-62.4315 -23.6366 -2.19498  255 255 255
63.6728 -24.8992 7.28476  255 255 255
-1.10414 -21.4921 35.3602  255 255 255
-53.5768 -23.9247 -1.30311  255 255 255
-7.23658 -21.5522 34.5146  255 255 255
22.3831 -22.8335 26.9685  255 255 255
60.4153 -26.019 -2.64631  255 255 255
-58.3689 -24.2807 -1.12268  255 255 255
7.25394 -22.0935 33.3794  255 255 255
62.7504 -25.8335 2.2723  255 255 255
22.1268 -23.1178 27.482  255 255 255
13.0258 -22.5374 32.1815  255 255 255
13.8272 -22.5861 32.0681  255 255 255
-1.10415 -22.3514 35.07  255 255 255
11.0435 -22.774 32.6845  255 255 255
22.0995 -23.4415 27.6187  255 255 255
7.36174 -22.9181 33.5329  255 255 255
65.0995 -26.6155 7.34758  255 255 255
-14.0818 -22.6813 34.1328  255 255 255
-13.1194 -23.1024 34.7064  255 255 255
-3.7995 -23.6046 35.2346  255 255 255
-43.4502 -26.7769 0.70404  255 255 255
-20.87 -23.9175 32.1127  255 255 255
-23.9235 -24.1114 32.3919  255 255 255
7.51107 -24.5448 34.8652  255 255 255
60.9472 -29.8228 -3.88783  255 255 255
7.94434 -24.9284 35.3433  255 255 255
69.6679 -28.4703 16.6144  255 255 255
-3.22473 -24.9832 36.8379  255 255 255
-3.53718 -25.1674 36.9666  255 255 255
67.4319 -29.6084 11.6836  255 255 255
-20.2207 -25.3764 33.6056  255 255 255
0.367064 -25.4439 36.6645  255 255 255
64.637 -30.6032 4.45479  255 255 255
62.7608 -31.3853 -0.518715  255 255 255
-17.1259 -25.7516 34.0967  255 255 255
-23.239 -26.2657 29.7325  255 255 255
19.0954 -26.9207 31.3555  255 255 255
66.399 -30.793 8.22617  255 255 255
-9.01939 -26.0521 35.4075  255 255 255
-13.1434 -26.1034 34.4107  255 255 255
63.1925 -31.7949 1.87659  255 255 255
69.0982 -30.0144 17.3242  255 255 255
69.0982 -30.0144 17.3242  255 255 255
67.7055 -31.1803 13.035  255 255 255
64.8379 -32.2137 6.01928  255 255 255
66.793 -31.9967 8.94009  255 255 255
66.793 -31.9967 8.94009  255 255 255
-16.9875 -27.0158 35.5883  255 255 255
64.6352 -33.1023 2.38175  255 255 255
66.0764 -32.6208 6.30344  255 255 255
-9.52302 -27.2288 34.9909  255 255 255
64.6924 -33.084 2.93855  255 255 255
-4.28855 -27.3849 36.3141  255 255 255
4.37563 -27.6212 35.57  255 255 255
65.1094 -33.5198 2.5916  255 255 255
64.9336 -33.5097 2.76274  255 255 255
65.2063 -33.5389 2.53187  255 255 255
-7.42234 -27.6795 35.947  255 255 255
68.2988 -32.6059 13.3767  255 255 255
-19.5088 -28.2502 31.9594  255 255 255
4.61871 -28.1601 35.3645  255 255 255
-55.2756 -31.5911 6.71066  255 255 255
14.202 -28.7288 34.5694  255 255 255
68.8549 -33.094 12.5968  255 255 255
14.2397 -28.9651 34.8605  255 255 255
14.2473 -28.9678 34.806  255 255 255
-18.6755 -28.8422 32.411  255 255 255
66.2069 -34.3004 8.09642  255 255 255
-19.381 -29.1573 31.4634  255 255 255
-15.9229 -28.6323 35.6698  255 255 255
13.1156 -29.2657 35.1694  255 255 255
16.3711 -29.5932 35.1746  255 255 255
-10.2914 -28.8989 37.0699  255 255 255
13.5437 -29.7063 34.8984  255 255 255
65.8743 -35.5501 6.416  255 255 255
65.8834 -35.7906 4.18555  255 255 255
65.9124 -35.8086 4.22779  255 255 255
-7.00121 -29.2072 37.0789  255 255 255
66.7732 -35.9956 5.91075  255 255 255
69.9007 -35.1326 12.957  255 255 255
-3.00521 -29.7044 37.4109  255 255 255
8.34806 -30.0266 36.6967  255 255 255
-3.68937 -29.7018 37.424  255 255 255
7.68471 -30.1091 36.8412  255 255 255
70.2561 -35.5578 13.5249  255 255 255
8.98967 -30.3802 37.0061  255 255 255
-10.1686 -29.9338 38.0676  255 255 255
-12.1653 -30.3568 36.6041  255 255 255
-5.58194 -30.244 38.2227  255 255 255
-7.25533 -30.1958 38.4014  255 255 255
-2.51733 -30.3492 38.1374  255 255 255
-2.53152 -30.3552 38.091  255 255 255
-6.65835 -30.9113 38.9219  255 255 255
-53.5986 -35.4634 11.1298  255 255 255
1.0511 -31.5067 38.6499  255 255 255
-1.79997 -31.5221 38.8246  255 255 255
1.53639 -31.933 38.2668  255 255 255
4.08972 -32.3055 37.5879  255 255 255
-13.149 -32.6591 34.2122  255 255 255
-11.2663 -32.6958 34.9979  255 255 255
0.577432 -32.6082 37.637  255 255 255
69.6959 -39.3459 10.489  255 255 255
-1.43965 -32.5366 38.1764  255 255 255
-20.6213 -34.4967 26.9703  255 255 255
-23.9055 -35.3338 22.9897  255 255 255
-11.7775 -33.3504 34.0489  255 255 255
60.0197 -41.1906 10.4527  255 255 255
-10.8689 -37.1011 31.4314  255 255 255
-41.9796 -40.7257 16.2213  255 255 255
46.0817 -43.4031 12.4877  255 255 255
15.4685 -39.8196 25.5608  255 255 255
15.3537 -39.728 25.8742  255 255 255
9.65644 -39.5343 29.0016  255 255 255
9.39761 -39.9491 28.8396  255 255 255
63.5812 -44.793 15.0915  255 255 255
36.5801 -45.032 15.322  255 255 255
35.0754 -45.2453 17.4081  255 255 255
1.113 -41.0872 31.0868  255 255 255
1.59964 -41.5917 30.0734  255 255 255
2.96583 -42.2095 29.1707  255 255 255
17.7211 -43.8771 26.2025  255 255 255
3.26352 -42.9698 28.5663  255 255 255
56.1258 -47.457 18.2072  255 255 255
-5.43896 -42.8625 31.024  255 255 255
53.3355 -48.3963 19.2501  255 255 255
67.1875 -49.0833 20.1989  255 255 255
52.8072 -48.858 19.9135  255 255 255
52.8163 -48.9016 19.9424  255 255 255
31.356 -48.5645 19.8965  255 255 255
58.4222 -49.4373 20.9115  255 255 255
60.0791 -49.5144 21.0425  255 255 255
54.1251 -49.5461 20.754  255 255 255
49.8863 -49.4598 21.2285  255 255 255
-47.7492 -47.7128 23.8443  255 255 255
56.46 -50.3711 21.9841  255 255 255
-47.2327 -47.8691 24.8613  255 255 255
51.6972 -50.4527 22.0366  255 255 255
14.4286 -48.8595 25.0639  255 255 255
-13.7029 -47.6305 28.1284  255 255 255
51.1188 -51.0034 22.6935  255 255 255
30.6858 -51.0258 22.7456  255 255 255
-11.278 -48.7742 27.79  255 255 255
49.0069 -51.7159 23.5952  255 255 255
-1.23907 -48.942 29.8174  255 255 255
0.492486 -50.0552 28.8185  255 255 255
-29.9556 -50.6554 27.1667  255 255 255
42.9852 -52.7516 25.3629  255 255 255
41.8359 -53.2495 24.5625  255 255 255
62.0547 -53.5815 25.6509  255 255 255
42.6829 -53.553 24.7356  255 255 255
54.6464 -53.5649 25.763  255 255 255
23.4953 -53.32 25.8327  255 255 255
23.4667 -53.2899 25.8875  255 255 255
-29.07 -52.1457 28.7169  255 255 255
-36.2607 -52.1444 28.9274  255 255 255
-29.7137 -52.4694 29.0333  255 255 255
-24.5518 -53.1961 29.5439  255 255 255
-22.8453 -53.4578 30.0758  255 255 255
34.8128 -56.2546 28.491  255 255 255
48.3441 -56.5051 29.0734  255 255 255
55.8353 -56.7078 29.2538  255 255 255
47.6568 -56.9489 28.609  255 255 255
30.4236 -56.3846 29.153  255 255 255
60.1858 -57.0756 30.0629  255 255 255
-21.9823 -54.8288 31.2733  255 255 255
50.0896 -57.1439 30.2303  255 255 255
50.0896 -57.1439 30.2303  255 255 255
-32.5366 -54.9255 32.0956  255 255 255
-17.4417 -55.383 31.7303  255 255 255
-26.2439 -55.8547 32.6913  255 255 255
31.9984 -58.1781 30.5063  255 255 255
51.1855 -58.4792 31.8117  255 255 255
-39.0291 -56.4693 33.4131  255 255 255
-21.2201 -56.579 33.0102  255 255 255
-38.5459 -56.4362 33.898  255 255 255
-35.0921 -56.5279 33.7544  255 255 255
-19.0567 -56.8534 32.9866  255 255 255
20.6884 -58.0828 31.862  255 255 255
-22.3129 -57.2666 33.7913  255 255 255
-8.80349 -57.798 33.5697  255 255 255
49.1255 -59.5267 33.1641  255 255 255
-8.51119 -57.9454 33.5003  255 255 255
35.9782 -59.7111 33.1568  255 255 255
-6.57079 -58.048 33.8478  255 255 255
-1.43246 -58.1762 34.3705  255 255 255
-15.2543 -58.0511 34.3896  255 255 255
-0.031573 -58.5246 33.6935  255 255 255
4.55338 -58.626 34.004  255 255 255
40.1211 -59.867 33.7559  255 255 255
-8.58794 -58.1869 34.9818  255 255 255
-1.92807 -58.6061 34.3521  255 255 255
-13.871 -58.1844 35.303  255 255 255
-13.8789 -58.4099 34.7326  255 255 255
7.06815 -59.1463 33.8936  255 255 255
7.08018 -59.1662 33.8187  255 255 255
46.3469 -60.1866 34.2807  255 255 255
3.52186 -59.1065 34.0278  255 255 255
-6.04123 -58.8317 34.7112  255 255 255
2.35734 -59.0093 34.8414  255 255 255
1.50719 -59.3597 34.1805  255 255 255
-9.3951 -58.9805 34.9436  255 255 255
49.8648 -60.8255 34.7376  255 255 255
-16.6883 -58.7847 35.9546  255 255 255
-16.6883 -58.7847 35.9546  255 255 255
29.8313 -60.3278 34.7458  255 255 255
41.1386 -60.9617 35.0716  255 255 255
31.0937 -60.8311 35.4475  255 255 255
48.5922 -61.3577 35.4617  255 255 255
48.5922 -61.3577 35.4617  255 255 255
-17.23 -59.6858 36.3573  255 255 255
-17.2311 -59.7004 36.3234  255 255 255
-15.8836 -59.7132 36.3536  255 255 255
-15.8713 -59.513 36.8275  255 255 255
43.4743 -61.8755 34.9195  255 255 255
22.7283 -60.9315 35.8247  255 255 255
47.5083 -61.659 35.8148  255 255 255
-5.21954 -60.1229 36.2692  255 255 255
-15.9881 -59.9131 36.6086  255 255 255
48.549 79.8881 -86.5716  255 255 255
-75.6447 54.2708 -13.7046  255 255 255
1.26561 69.3865 -59.8581  255 255 255
1.31703 69.482 -60.0841  255 255 255
57.8059 81.3888 -91.9642  255 255 255
-0.00364622 69.0145 -59.1932  255 255 255
-65.5266 55.7633 -19.6175  255 255 255
33.2435 75.8704 -79.5334  255 255 255
-3.31887 67.9396 -57.6212  255 255 255
-152.971 91.5245 -106.461  255 255 255
-10.0708 65.8976 -54.8331  255 255 255
51.9465 49.334 -12.0469  255 255 255
50.9281 78.4799 -90.0039  255 255 255
-53.0841 57.4425 -29.6418  255 255 255
67.6298 81.6626 -99.0455  255 255 255
12.3931 69.7135 -68.2047  255 255 255
63.5176 80.3922 -97.2526  255 255 255
52.1308 48.8021 -12.9561  255 255 255
-15.9053 63.8243 -51.9917  255 255 255
-15.9186 63.7562 -52.0271  255 255 255
-17.0847 63.3173 -51.0081  255 255 255
59.3979 78.977 -95.518  255 255 255
67.4944 80.5159 -99.7578  255 255 255
-55.9059 55.9075 -27.9724  255 255 255
53.3309 47.3648 -11.394  255 255 255
58.366 77.7355 -95.8675  255 255 255
27.0722 71.1776 -78.3261  255 255 255
57.2103 77.4079 -95.4545  255 255 255
54.3758 46.2287 -8.98044  255 255 255
55.8421 76.8365 -94.7226  255 255 255
-65.8059 52.1842 -20.2319  255 255 255
-1.70923 64.9851 -61.3354  255 255 255
54.8325 45.4931 -8.11625  255 255 255
22.0377 69.7778 -75.6088  255 255 255
48.7901 49.6322 -20.0542  255 255 255
49.2679 37.2536 14.1103  255 255 255
27.5777 70.2201 -79.5058  255 255 255
55.7523 75.7482 -95.5025  255 255 255
-88.552 51.0877 -17.6859  255 255 255
49.4589 36.4876 14.1948  255 255 255
-4.39034 63.0249 -61.0276  255 255 255
50.9962 35.4259 15.4908  255 255 255
-52.7461 53.7662 -32.309  255 255 255
